5.725 19.87026557242661 -0.03776389584123585 0 0 0
5.651 20.339959507311267 -0.03509026988120567 0 0 0
4.294 19.78468214750844 -0.04215588298558792 0 0 0
2.202 19.727314060901488 -0.04616891224315545 0 0 0
6.862 18.475773489007913 -0.012357138913456467 0 0 0
6.323 19.928780188263474 -0.03364904680893588 0 0 0
3.611 17.60187259145305 -0.00802219269307436 0 0 0
2.551 20.101787402631114 -0.022216085119232787 0 0 0
4.758 20.292075222424195 -0.03787523703940643 0 0 0
4.188 19.505334261826178 -0.04570631863072627 0 0 0
5.133 20.803477742452667 -0.023531588705230533 0 0 0
3.845 20.49099698047332 -0.03441459751100062 0 0 0
5.992 20.51567255081457 -0.03178980005020726 0 0 0
6.421 20.11563943993435 -0.03560114206199039 0 0 0
4.556 18.69916267253804 -0.033590471877927186 0 0 0
4.487 20.78542346214463 -0.02423949632347444 0 0 0
4.577 19.92169233934701 -0.037903316660452546 0 0 0
6.729 20.78315828397997 -0.03481765013425431 0 0 0
5.489 20.02792455218617 -0.04476627440122449 0 0 0
4.002 19.451723747573297 -0.04309941717023236 0 0 0
3.009 20.25771078510352 -0.024238770065316828 0 0 0
2.318 17.79922483960343 -0.022655928291479555 0 0 0
3.229 19.74867679933902 -0.036939488985950675 0 0 0
4.722 19.186856911618065 -0.037736624148694276 0 0 0
5.014 19.86478646516116 -0.04044700743849994 0 0 0
2.333 20.1676978935886 -0.023811457495954258 0 0 0
5.47 19.664951631978866 -0.047100744210302636 0 0 0
3.489 20.307870838772445 -0.03138555970284074 0 0 0
6.627 17.980114432460066 -0.00942419545760309 0 0 0
6.681 16.314081267011087 0.02066966451811325 0 0 0
4.783 16.486004293439887 0.026922632489240428 0 0 0
7.543 18.39432533450755 -0.010081751042278597 0 0 0
5.918 26.26837727357606 -0.03671687330013107 0 0 0
6.089 25.381915921624277 -0.02599603459326616 0 0 0
5.569 25.48388829496609 -0.02173146190539832 0 0 0
5.765 26.120747502148923 -0.03646674964740093 0 0 0
5.709 25.36768057522272 -0.023487273364112937 0 0 0
5.77 25.605216392294004 -0.023440473143915952 0 0 0
5.583 25.927456340508467 -0.03199936676194781 0 0 0
5.906 25.382608058540654 -0.025272676986341835 0 0 0
5.679 25.92800542494657 -0.02983136046435675 0 0 0
6.769 25.701392398887915 -0.030803594642602405 0 0 0
5.943 24.32567363824238 -0.0258902865186581 0 0 0
6.359 24.035442020921945 -0.017676334922446912 0 0 0
6.117 25.201162561969028 -0.02936265737237953 0 0 0
7.361 25.841115555494547 -0.048690579029297965 0 0 0
6.838 24.01868400923462 -0.014511550561765674 0 0 0
6.964 26.03000825926536 -0.04162471890409236 0 0 0
7.22 25.142316357856686 -0.037347356094739936 0 0 0
6.647 25.333107209856568 -0.03196603272654741 0 0 0
6.158 24.742439494903138 -0.025932341887687116 0 0 0
6.634 26.008318560845133 -0.03774516023910657 0 0 0
7.832 25.75852290893068 -0.04815958988098146 0 0 0
6.518 23.65429277667263 -0.013477292198556867 0 0 0
6.266 23.419018409770917 -0.011629170648829401 0 0 0
6.938 24.640888731103118 -0.028097222752364814 0 0 0
6.766 24.888424268193315 -0.030284626682837157 0 0 0
6.932 24.0100853462917 -0.015028858926902089 0 0 0
6.503 23.528542562867372 -0.012334349674107514 0 0 0
7.1 24.430160275865617 -0.025494876193025817 0 0 0
7.529 24.469599674274242 -0.030856009770564796 0 0 0
7.582 25.500147706204686 -0.040997601878379086 0 0 0
6.222 25.066458588778673 -0.026529282129487797 0 0 0
6.785 24.35284811509349 -0.023659953121292432 0 0 0
7.308 25.744683382180924 -0.042583446388618995 0 0 0
7.345 24.79459579077245 -0.036206082467758804 0 0 0
6.618 24.993404016238166 -0.02935277675384107 0 0 0
7.106 25.563809941769676 -0.03438532917382631 0 0 0
6.658 25.262872168511418 -0.03091978365138104 0 0 0
7.031 23.806308751298975 -0.014315308589143427 0 0 0
7.211 24.30969294617504 -0.021121450292687527 0 0 0
7.06 24.91886731623246 -0.03306256250511019 0 0 0
8.109 24.22155266031008 -0.02103759342002043 0 0 0
7.159 22.16530973704199 -0.010520652712303402 0 0 0
8.401 25.70505946802151 -0.0461870108160678 0 0 0
7.202 23.109876110085267 -0.007918656536308077 0 0 0
7.723 22.975516357568203 -0.012257331641185587 0 0 0
6.746 22.618876137771416 -0.005360142528013867 0 0 0
7.88 23.356524488966894 -0.012067219810058205 0 0 0
6.518 22.969153246796843 -0.008063536507791014 0 0 0
8.024 23.641683209087805 -0.016709700125041138 0 0 0
7.442 23.805518214447726 -0.014929119302721006 0 0 0
7.347 22.650143889974103 -0.008457625709786143 0 0 0
7.312 24.05560155838652 -0.015472899966709974 0 0 0
7.613 24.273162387780076 -0.02461940675372709 0 0 0
6.6 22.248018289492364 -0.006607907522422352 0 0 0
6.955 23.152345893746418 -0.008065246325900333 0 0 0
6.978 22.990802799193442 -0.008161988105941376 0 0 0
6.611 21.976348271895002 -0.013022312139302272 0 0 0
7.51 22.921664922849608 -0.010467432324686499 0 0 0
6.2 22.990802799193442 -0.008161988105941376 0 0 0
7.355 23.225070162924382 -0.007806067473001832 0 0 0
7.255 22.989968110769816 -0.00871370992834919 0 0 0
8.29 23.857542841831528 -0.02130320689359877 0 0 0
7.011 22.505277414113607 -0.010942941506897341 0 0 0
8.465 24.219898245552084 -0.023734700725416502 0 0 0
7.67 23.171259142869275 -0.010880229925376739 0 0 0
6.547 22.09340414874758 -0.0044494280725668744 0 0 0
6.758 22.99163740120861 -0.007610201027981489 0 0 0
6.507 22.77871774867661 -0.008356924605729787 0 0 0
7.794 24.061587152649086 -0.019631080915521792 0 0 0
6.705 22.400788561286287 -0.005304631205710564 0 0 0
8.359 25.764946535593616 -0.048491309850769326 0 0 0
7.82 22.98551012813438 -0.012856964525465031 0 0 0
8.209 25.601527140695932 -0.03634262803877597 0 0 0
6.732 23.399230130393434 -0.00983704800439078 0 0 0
8.45 24.894788827415056 -0.03113626563423466 0 0 0
7.382 22.732358570348122 -0.008003522684813191 0 0 0
6.637 22.857009159130904 -0.008237615661474962 0 0 0
6.93 22.074796764005615 -0.010038293830968215 0 0 0
7.054 22.86669332307619 -0.010330496172207049 0 0 0
8.409 23.562959244504736 -0.016775439449611795 0 0 0
8.14 21.468105672686054 -0.032772761944707796 0 0 0
8.359 22.005695851516567 -0.02117578927197883 0 0 0
7.61 22.29393970393185 -0.010428043963282008 0 0 0
6.988 21.870318284219675 -0.020139749080268388 0 0 0
7.737 22.317780680044102 -0.011765975875292156 0 0 0
7.998 22.118516379457077 -0.016924978060570695 0 0 0
8.319 21.400230006901342 -0.03688943190011962 0 0 0
8.115 22.145368653650344 -0.015843764300706553 0 0 0
8.041 21.499070015421324 -0.032510271155693715 0 0 0
6.669 21.55252152898147 -0.028023427858258287 0 0 0
8.313 22.99327057704604 -0.01732302589559076 0 0 0
7.937 21.72379943351333 -0.0218902224901516 0 0 0
6.841 21.47445150626696 -0.029778402928940295 0 0 0
7.549 22.028766705546346 -0.0133363615212172 0 0 0
8.34 21.993552599010876 -0.01972448789997472 0 0 0
8.119 22.511453731088533 -0.015409180593383809 0 0 0
8.473 21.666855555318445 -0.03124624491905692 0 0 0
7.658 22.317780680044102 -0.011765975875292156 0 0 0
7.08 22.029648078377686 -0.012861926526467116 0 0 0
7.838 22.515233995422662 -0.011981896968256578 0 0 0
8.499 21.461705732554886 -0.037998856310521134 0 0 0
2.714 28.20937877982464 -0.011275965964136603 0 0 0
3.132 26.775156271193108 -0.03268545475567208 0 0 0
2.974 27.84671076518104 -0.01806013206990187 0 0 0
2.234 28.26226114715879 -0.01022911123578929 0 0 0
3.159 27.712707718400384 -0.01983660462676795 0 0 0
2.636 28.14074029196195 -0.013682361728070802 0 0 0
3.67 26.64997110060839 -0.03984249932559614 0 0 0
2.973 28.217374248214234 -0.013330197116200537 0 0 0
3.001 28.141922265871166 -0.01775753688975179 0 0 0
3.77 26.94252172272145 -0.040588612209271346 0 0 0
2.549 27.183754297892833 -0.023213684039042448 0 0 0
2.897 28.034812591009402 -0.01654341201658127 0 0 0
2.578 27.653628458813973 -0.016737121020847567 0 0 0
2.157 26.75397301558289 -0.020915920622909923 0 0 0
2.87 26.59982916416871 -0.029734898390660902 0 0 0
2.869 26.64415304903513 -0.029242067612896605 0 0 0
2.866 28.38036865675487 -0.016071250630439238 0 0 0
2.533 27.65329706536566 -0.015362163405894691 0 0 0
3.152 26.37304890218296 -0.03431456219281337 0 0 0
3.177 28.14271075113632 -0.02047424759350136 0 0 0
3.47 27.580291394129276 -0.026818544176311576 0 0 0
2.786 27.58695853710977 -0.018001754269771908 0 0 0
2.065 26.337152490604456 -0.02632932127455767 0 0 0
2.188 27.18404388691417 -0.020996369129056447 0 0 0
2.985 28.302840543324912 -0.017123633779736025 0 0 0
3.702 26.584920602278356 -0.04105777268324928 0 0 0
2.608 28.19444240888528 -0.015688271521330677 0 0 0
3.661 26.950096501302916 -0.03857670831423299 0 0 0
2.674 26.884542227621903 -0.025223207347384147 0 0 0
2.74 28.4583342294497 -0.01356654208488095 0 0 0
2.525 27.608289886731768 -0.015899698565823073 0 0 0
2.929 27.059457571042532 -0.025721905827687408 0 0 0
5.05 29.768453148887097 -0.03387962275887446 0 0 0
5.319 26.95656033829194 -0.04679574297883704 0 0 0
3.33 28.257871573162603 -0.02263035934709201 0 0 0
4.266 29.95226892426395 -0.025952087713303484 0 0 0
5.069 29.261207114329615 -0.019709852742185063 0 0 0
5.099 28.160194247515317 -0.032341812567681316 0 0 0
2.579 30.183500976312903 -0.007240816901488145 0 0 0
4.427 28.142927289638962 -0.026301195050214332 0 0 0
5.254 28.6966443678745 -0.020475144592593253 0 0 0
3.83 30.37211338430121 -0.017981271440602242 0 0 0
2.933 30.292982846708522 -0.006250773821362188 0 0 0
3.938 29.69564170699345 -0.019802601240980877 0 0 0
4.046 27.154465328711183 -0.036055679397763996 0 0 0
2.939 29.709575610940423 -0.011118778971569654 0 0 0
3.903 26.956993927688725 -0.04098080157404915 0 0 0
4.851 28.505765535078744 -0.019755011750984153 0 0 0
5.667 29.70729264783611 -0.04015002268719847 0 0 0
5.246 29.254255444415595 -0.023297181229745334 0 0 0
4.589 29.552411261246615 -0.02413348848709873 0 0 0
4.54 28.10602520929794 -0.028803863054038814 0 0 0
4.223 28.631633403223738 -0.014361312079188338 0 0 0
5.046 29.473312600634603 -0.02531696095287117 0 0 0
3.597 28.14380546799751 -0.026783518468890932 0 0 0
4.934 27.242407514299565 -0.04194313840764252 0 0 0
4.561 27.66241496583337 -0.03499010073109332 0 0 0
3.056 29.94140151721495 -0.008422689039038644 0 0 0
4.947 29.41114735455519 -0.02413844869704107 0 0 0
4.62 27.954903360767215 -0.0333172162604356 0 0 0
2.961 28.848339460323487 -0.011733454090030904 0 0 0
4.597 26.84066241934836 -0.03810652318146879 0 0 0
3.659 27.999187087014473 -0.028592876822511215 0 0 0
4.83 27.567133954327986 -0.042213361147492634 0 0 0
5.823 30.319803927305678 -0.04490407860721746 0 0 0
4.208 28.142927289638962 -0.026301195050214332 0 0 0
3.913 30.29264018194069 -0.02080697108941898 0 0 0
4.772 28.847008582422653 -0.012215883873059497 0 0 0
2.535 29.655095000334143 -0.010987345480925725 0 0 0
4.691 30.228758000011304 -0.030109408236151936 0 0 0
5.033 28.459592323333478 -0.022076682161882744 0 0 0
5.146 27.761191963751966 -0.04423708825231998 0 0 0
5.498 29.767391281519483 -0.04840136915623994 0 0 0
5.423 28.3450598088915 -0.03373765253184047 0 0 0
4.722 28.48876967858292 -0.015620031843592841 0 0 0
4.618 29.25066487079129 -0.01635775296477071 0 0 0
3.17 28.68899672229702 -0.017882146932784337 0 0 0
3.073 28.505778266868468 -0.017518979839406867 0 0 0
4.465 29.25212088563717 -0.018056827628376126 0 0 0
2.88 29.257468289743684 -0.010541384646749918 0 0 0
4.811 28.26582168991815 -0.026883438271083193 0 0 0
2.792 29.580499236432974 -0.007122417154038274 0 0 0
3.208 28.434570315654337 -0.015983132858750082 0 0 0
4.15 27.18367815598237 -0.03763568929619332 0 0 0
2.554 28.89616592825543 -0.008573522973557957 0 0 0
4.945 26.621067217667637 -0.03820919317898408 0 0 0
3.165 29.250521344885122 -0.014126282840189575 0 0 0
5.478 29.507817977292305 -0.03893832303247713 0 0 0
3.19 30.047737362807773 -0.009906673640257324 0 0 0
2.333 29.42365124999371 -0.011924490066153481 0 0 0
5.406 26.648767168089687 -0.04644266957303422 0 0 0
5.295 28.038670356138212 -0.0382273687729473 0 0 0
3.617 28.343471923841523 -0.02386383781658452 0 0 0
4.342 28.95596428911022 -0.015060733093637424 0 0 0
3.959 29.05642421252455 -0.016293874812262743 0 0 0
5.007 27.98489149557726 -0.03543838544292832 0 0 0
2.466 29.83085329961939 -0.011791403042536786 0 0 0
4.895 28.87259559274074 -0.01419711881301744 0 0 0
5.095 26.36429620461188 -0.038887866379912595 0 0 0
3.975 29.836023701726013 -0.021083833860211953 0 0 0
5.8 30.189913889612924 -0.04607482229020832 0 0 0
3.879 26.971558208528766 -0.03774902031143057 0 0 0
4.97 27.65665654125305 -0.04437555779342084 0 0 0
5.766 29.772038569567364 -0.0415760850916449 0 0 0
2.882 28.817487868021924 -0.01384554291884399 0 0 0
5.434 26.29045995224344 -0.0428802679536755 0 0 0
3.355 28.530851365935316 -0.02120955495198018 0 0 0
4.845 26.8981791215695 -0.04231738341137792 0 0 0
4.291 28.173889880679877 -0.026140474132436253 0 0 0
2.35 30.57421638721424 -0.00832388308824683 0 0 0
3.504 31.089301827235534 -0.006232105902435947 0 0 0
3.714 30.773959960101585 -0.013987421268199185 0 0 0
3.04 30.846373285498867 -0.005858327624904902 0 0 0
5.227 30.8408507511131 -0.03954261707294471 0 0 0
3.833 31.483181120357802 -0.005770021227393229 0 0 0
4.003 30.488512425352024 -0.020176476508911634 0 0 0
3.858 30.446672300918014 -0.020428515423047244 0 0 0
2.364 31.154216663369745 -0.0005101862231988719 0 0 0
2.161 31.058126698365854 0.0010195832266379767 0 0 0
5.66 30.80821253800348 -0.0414984832751788 0 0 0
2.106 31.313112479844545 0.0008366089539837418 0 0 0
5.798 30.411566504345828 -0.04340566635852028 0 0 0
4.931 30.47077528040208 -0.03792768180516504 0 0 0
4.128 31.484957163930574 -0.0071299782121521105 0 0 0
2.497 31.21658901215709 -0.0010189455848479412 0 0 0
2.66 30.900002952277944 -0.001864959517376974 0 0 0
2.179 30.78887356565494 -0.00444966975699046 0 0 0
2.356 31.91956979184711 0.006687090915312055 0 0 0
2.859 30.74686002641222 -0.0068440646496874535 0 0 0
5.473 31.174266419659894 -0.0347057184678814 0 0 0
4.679 31.878690563571347 0.003815674489018761 0 0 0
5.81 31.192321761110932 -0.027432414105492242 0 0 0
6.105 31.486544749232273 -0.00947166431890345 0 0 0
6.794 33.00818251874091 0.03988601090829569 0 0 0
6.309 32.65127428411034 0.033771246216018014 0 0 0
3.254 32.32889873752312 0.016606170193997016 0 0 0
3.769 32.68551888641945 0.024027228926074784 0 0 0
4.766 32.82283156701493 0.028264016992400443 0 0 0
6.349 32.13250889575613 0.022226875518654765 0 0 0
5.202 31.85473813453392 -0.0005553721416156066 0 0 0
2.729 33.58421554649886 0.0401770450084058 0 0 0
4.929 31.497127392510592 -0.0074259361165562865 0 0 0
6.483 32.20801193374159 0.022737292732815106 0 0 0
3.063 33.090494469976385 0.028292646932039034 0 0 0
3.472 32.08060358413593 0.01802345663339544 0 0 0
2.721 32.99945551746319 0.024285349283406532 0 0 0
4.824 32.76591184180031 0.029103937404670432 0 0 0
4.773 31.484163632757866 -0.00595904663254565 0 0 0
5.591 32.61725013349982 0.03357671591751732 0 0 0
3.535 33.85534027442016 0.03746927139494183 0 0 0
4.509 31.986707195438637 0.009936268618062627 0 0 0
2.396 32.2143614286528 0.008860534364171002 0 0 0
5.33 33.34009709399545 0.038327826363191875 0 0 0
5.34 31.467142383417645 -0.014894553843937786 0 0 0
2.501 33.756642796784085 0.0377424928723773 0 0 0
6.326 32.386604261284276 0.030440178663123874 0 0 0
5.804 34.76808971566588 0.04508223416334722 0 0 0
5.754 34.523641111979906 0.04604916218779387 0 0 0
2.796 35.75330442231638 0.04138344789294024 0 0 0
3.596 34.58843416807293 0.04841828122858871 0 0 0
5.937 34.35851901652951 0.048636214571642356 0 0 0
5.722 34.77117355733066 0.04444196844927184 0 0 0
6.322 34.38026580694046 0.05139881022150128 0 0 0
4.892 33.90314031505667 0.03912024161574834 0 0 0
6.497 31.1528539624264 -0.024803136885635624 0 0 0
7.72 31.043919903424293 -0.024408936069479026 0 0 0
6.811 31.47240725904461 -0.008783696242643302 0 0 0
7.042 31.51107797421749 -0.009063624913100199 0 0 0
6.589 30.555004063993582 -0.039267904523844877 0 0 0
6.533 31.496144515706188 -0.007238104207104357 0 0 0
6.738 31.572854038086838 -0.005338136129045878 0 0 0
7.965 30.80422061184478 -0.02497081931809042 0 0 0
6.369 31.701671818158868 -0.0007873855811588726 0 0 0
6.751 31.164051271667745 -0.02525920893282496 0 0 0
6.967 32.36007683856788 0.02625073245378573 0 0 0
8.028 33.49555794671682 0.04594662175196618 0 0 0
7.669 31.71744704568942 -0.0034784365501963066 0 0 0
8.088 30.99577409431291 -0.023255274926466285 0 0 0
8.115 32.657032256426824 0.01825725672291334 0 0 0
7.64 33.37402423135419 0.04183273879170635 0 0 0
7.762 31.69096688525883 -0.00402097066175422 0 0 0
6.885 33.00723451022065 0.040932174303749846 0 0 0
7.484 32.388215700498066 0.01719662723759008 0 0 0
7.746 33.41785076195173 0.041352922996564345 0 0 0
8.05 33.35110162398573 0.04115560327385914 0 0 0
8.24 33.702628141083906 0.048639739885379285 0 0 0
2.744 26.056670358750154 -0.02870913136749742 0 0 0
2.754 25.937797792850784 -0.027680586239760885 0 0 0
2.27 25.86365778583457 -0.02449700317749759 0 0 0
2.155 25.682614308621453 -0.024703112336496247 0 0 0
3.399 26.255378109545994 -0.03524724725979311 0 0 0
3.652 26.091194085961334 -0.04057684467757561 0 0 0
2.935 25.543798159635365 -0.030924574988691944 0 0 0
2.216 26.027934535845706 -0.02547768567970543 0 0 0
2.146 26.25730551881187 -0.026511884019953413 0 0 0
2.074 25.322332796009338 -0.024381546721979674 0 0 0
2.42 25.336585456213633 -0.028364626131736514 0 0 0
3.334 25.688644851702715 -0.031472441739309076 0 0 0
2.073 25.384058442430312 -0.02665347892576797 0 0 0
3.118 23.98179039517985 -0.019825736109373437 0 0 0
3.957 25.106851405507136 -0.03165862836194755 0 0 0
3.37 24.23119658281439 -0.024697250473586507 0 0 0
4.84 26.2608401274242 -0.039649003745727995 0 0 0
2.679 23.176776546980584 -0.00830865660535629 0 0 0
3.566 24.8976248369444 -0.03119936389250455 0 0 0
3.844 25.520385439688987 -0.031088142847028877 0 0 0
3.721 23.812459957342092 -0.02220784360530459 0 0 0
3.179 24.018870925729328 -0.019508066778501032 0 0 0
4.582 25.61077343951197 -0.03664247788100994 0 0 0
2.912 24.02980611719191 -0.017093208220902767 0 0 0
4.456 25.162166249088813 -0.030242807929077742 0 0 0
2.109 23.50050062621649 -0.01305601654898858 0 0 0
5.327 26.128584518227004 -0.03644963725691319 0 0 0
4.006 26.134018316355565 -0.04872600220907053 0 0 0
4.235 24.557790943031964 -0.028894325291043188 0 0 0
4.908 25.155066766871695 -0.02601636387255546 0 0 0
4.711 25.52096561187417 -0.027529316156474692 0 0 0
2.329 24.040881231298805 -0.01326037173796557 0 0 0
4.121 24.1575287380648 -0.0288542057093526 0 0 0
4.542 24.175373739618124 -0.028343147171590033 0 0 0
2.427 23.591019903479772 -0.010889804073450193 0 0 0
3.357 25.035958857026507 -0.028413990636799724 0 0 0
2.517 24.638385308438416 -0.020902667165822564 0 0 0
2.825 24.324359698046916 -0.015153424815306238 0 0 0
4.087 24.1575287380648 -0.0288542057093526 0 0 0
4.693 25.919594641508738 -0.04108872592501278 0 0 0
3.225 24.311757589324884 -0.021990046522923024 0 0 0
4.693 26.068567330285052 -0.04258019678793801 0 0 0
2.959 23.572009782821567 -0.00882030269264078 0 0 0
4.411 24.06962229582658 -0.024701043515973353 0 0 0
3.342 23.93547707673924 -0.019690566573229873 0 0 0
3.729 24.031454598920234 -0.02863851664386452 0 0 0
4.436 25.588028201157094 -0.036216080858942234 0 0 0
2.466 24.429494420973402 -0.014112509042503163 0 0 0
4.38 24.228011000071646 -0.0286850798307956 0 0 0
3.079 25.004065044125976 -0.02736631746036622 0 0 0
5.302 25.72605665898996 -0.027341529241702744 0 0 0
5.569 24.685842482244695 -0.022292222804383144 0 0 0
3.349 24.825400239224745 -0.02652831561777802 0 0 0
3.315 24.47503603053745 -0.023399726430486822 0 0 0
4.071 24.914758288748583 -0.025906508932216354 0 0 0
3.562 25.256481997267596 -0.030287582625234677 0 0 0
3.004 24.181139258307837 -0.019630620146880773 0 0 0
3.145 23.444125071778128 -0.00707280356571971 0 0 0
2.019 23.50846791194844 -0.017142817027197665 0 0 0
3.638 26.02464211058776 -0.03710624722322642 0 0 0
4.918 24.62692748370159 -0.023196229470107355 0 0 0
3.616 24.149827985650585 -0.027436132279579084 0 0 0
2.327 23.10990363660163 -0.011524102936146363 0 0 0
4.779 25.731527140522335 -0.03624388599120287 0 0 0
5.408 25.028911235588517 -0.02410408716877832 0 0 0
2.808 23.512340885457554 -0.010582402511550626 0 0 0
4.673 24.79358521027221 -0.023439546932090494 0 0 0
3.397 24.044240421315525 -0.022134674776733476 0 0 0
3.386 25.3124830739609 -0.028793576045146096 0 0 0
3.413 25.146565675604794 -0.030272217880208174 0 0 0
5.452 25.492290984483052 -0.018623140526553783 0 0 0
4.98 25.7249549069175 -0.03306804706596367 0 0 0
2.446 24.679501181106772 -0.021316454676821195 0 0 0
2.638 24.564061103386283 -0.017900809995401445 0 0 0
2.394 24.802815409176628 -0.023022285300005052 0 0 0
2.65 24.916898770635623 -0.025242972955258125 0 0 0
2.22 23.381778101543002 -0.011261430580317366 0 0 0
3.687 21.96474510927012 0.02157911806018653 0 0 0
2.722 21.910952710691973 0.010099339119822304 0 0 0
4.834 23.92451829643949 -0.02200878767742509 0 0 0
4.218 22.05330286821408 0.01697490432126436 0 0 0
6.276 22.024969276139124 -0.006293204978273792 0 0 0
5.299 22.52124276463026 0.003279956093512837 0 0 0
3.657 21.411634812205588 0.0026118149290166315 0 0 0
2.615 21.808650145137356 0.0076899974959161455 0 0 0
2.519 22.9827511788402 -0.00868520672444717 0 0 0
4.642 22.988890813006634 0.00016549950610666997 0 0 0
5.561 22.48403856509126 0.003172304619319277 0 0 0
5.786 22.38631552195516 0.003615255199129308 0 0 0
6.003 22.395887393615578 0.0010975583734680328 0 0 0
2.958 22.39149580428971 0.006638312456319184 0 0 0
4.423 22.667934421153625 0.00840946361254602 0 0 0
5.135 21.90387298105802 0.00638451082352276 0 0 0
2.767 22.097857384412382 0.008245517420471415 0 0 0
4.804 21.77736848090614 0.0074229005714201435 0 0 0
4.066 22.427422090532506 0.018439476902120333 0 0 0
5.919 22.102970984894796 0.0030663905257100055 0 0 0
4.648 23.289755047004498 -0.007805995691461121 0 0 0
2.828 22.376386824493498 0.004774318815812251 0 0 0
6.143 21.639566693659624 -0.01904683943304697 0 0 0
5.028 23.603621969250426 -0.01771721815183902 0 0 0
4.057 22.217941120514702 0.022340865401481835 0 0 0
4.628 22.07752483922898 0.014221852416692826 0 0 0
3.032 22.037753253914364 0.014236002786532254 0 0 0
4.233 22.025172525282745 0.016531313656070523 0 0 0
4.695 21.534611111000103 0.0022088968576365886 0 0 0
4.624 23.82186276272533 -0.02123472895622669 0 0 0
6.015 23.045759443307826 -0.007660017994872703 0 0 0
2.145 21.392300619039144 -0.0008707233616398469 0 0 0
4.229 23.200013266889663 -0.0032450859991683956 0 0 0
5.53 24.048526869879463 -0.02896945928278072 0 0 0
3.786 22.19418998473943 0.023901540794195597 0 0 0
5.133 23.226462839889628 -0.008057730009316089 0 0 0
6.156 21.405575982531214 -0.022275094702088438 0 0 0
3.289 22.001032264043936 0.017168169693137614 0 0 0
5.258 21.775149344289062 0.0051713195912252985 0 0 0
4.232 22.613743631625656 0.012602026339893158 0 0 0
5.368 23.81738749216323 -0.02851931967852117 0 0 0
5.713 23.51385429547226 -0.019398071627565017 0 0 0
5.716 22.105996765635936 0.005865851815833878 0 0 0
4.244 23.270571011733775 -0.0065937569237295435 0 0 0
4.533 22.035116689737226 0.01281090877898805 0 0 0
5.504 22.781563360404196 -0.005371474529729525 0 0 0
6.026 22.58966970335551 0.00024288625043489276 0 0 0
5.204 22.514559556289857 0.008598318729754695 0 0 0
5.954 22.256983999395793 0.0019156725984572631 0 0 0
2.011 22.944676347578284 -0.014555951662469369 0 0 0
2.748 21.65224466131916 0.009508600138536494 0 0 0
5.389 24.029897635369384 -0.029899131109511146 0 0 0
5.76 22.02463097355284 0.004882016127565336 0 0 0
4.022 21.606228407169148 0.010269980659787237 0 0 0
4.12 21.589232686293762 0.00864731132857699 0 0 0
2.584 21.44473251268662 0.002656581431827121 0 0 0
4.691 21.675474560971285 0.007636621812322275 0 0 0
4.953 22.909826742559463 -0.001466639565659733 0 0 0
5.706 23.542507131797347 -0.019445706997499812 0 0 0
4.664 23.794004446489897 -0.021323125138282606 0 0 0
2.898 22.116026469188906 0.012516538889981277 0 0 0
5.925 23.16290981965543 -0.009324343798779111 0 0 0
4.563 22.033358589456103 0.011861208675876256 0 0 0
3.481 21.380771647592287 0.0026022088295025725 0 0 0
2.486 22.407337617296676 -0.002632221437554705 0 0 0
4.571 23.670544073777215 -0.02001364816866591 0 0 0
5.679 22.37415619248619 0.004633280646363147 0 0 0
3.401 22.04295292626376 0.019323073277275782 0 0 0
5.974 21.508325182309367 -0.017026755571462715 0 0 0
2.889 22.035591081694353 0.011930891817142353 0 0 0
2.178 22.642079529026706 -0.008723691486014928 0 0 0
3.845 22.500356170878415 0.01873472206538196 0 0 0
5.18 22.111253568021713 0.008751705140396027 0 0 0
4.896 22.57333999139454 0.0078677015290598 0 0 0
3.556 22.466640148899753 0.02073978745242755 0 0 0
3.516 22.060723990512894 0.02214450757973907 0 0 0
3.487 22.907434316729866 0.0077133902228982976 0 0 0
4.852 21.417737181473594 -0.0033684639048452425 0 0 0
5.445 22.038509560734582 0.0044162777932861275 0 0 0
2.321 21.3793768674204 0.0008546510921583206 0 0 0
4.601 23.803408150397253 -0.02036624628281558 0 0 0
4.259 22.039914492931413 0.01654155248094824 0 0 0
2.703 22.889031644835597 -0.0006602498785941435 0 0 0
2.235 21.427702255477573 0.0012916482850009459 0 0 0
4.936 22.6880486106486 0.004417864522018533 0 0 0
2.436 21.67546900480846 0.0054005607701750336 0 0 0
4.26 23.545939881871767 -0.015670129345739525 0 0 0
2.309 22.193963646904585 -0.0002841711087757659 0 0 0
4.939 22.38265082796148 0.011894777246890698 0 0 0
3.534 22.061124958356785 0.023500433895938144 0 0 0
3.39 22.386102689728336 0.013908681614509533 0 0 0
6.034 28.471568149863877 -0.03605381162361354 0 0 0
6.272 26.363212568561178 -0.04186017275726428 0 0 0
6.096 26.363836100427747 -0.04107644773066177 0 0 0
5.913 28.330198961719802 -0.0361038353271379 0 0 0
5.995 28.31574859786737 -0.03980116205639561 0 0 0
5.725 27.382278780761023 -0.048485692933413205 0 0 0
5.482 27.249653717327543 -0.0491500780933638 0 0 0
5.892 26.52506161338564 -0.043338833288027345 0 0 0
5.706 27.90344381137995 -0.04413912411739318 0 0 0
6.445 28.80531377027319 -0.030228557558725555 0 0 0
7.705 28.898469195214727 -0.03937480192542786 0 0 0
7.584 28.97961981504974 -0.03565379168361815 0 0 0
7.588 28.546033845166036 -0.04897656600081568 0 0 0
5.935 28.866492486457407 -0.0201864477399063 0 0 0
6.305 28.519560308382534 -0.04129084003339756 0 0 0
6.702 28.87934824061711 -0.03055538502622923 0 0 0
7.423 28.880878229770115 -0.036774218102484824 0 0 0
5.866 29.7628644662102 -0.040359099457512926 0 0 0
7.427 28.59229732198589 -0.04404527983128759 0 0 0
6.438 28.70176040038843 -0.03517081004574507 0 0 0
5.975 29.19029727288536 -0.03528889851535588 0 0 0
6.37 28.17803476760821 -0.04777236638447313 0 0 0
5.701 29.127377309873488 -0.02668329100018596 0 0 0
6.722 28.878926210573624 -0.03146253701598667 0 0 0
7.463 28.719334825013664 -0.04030121294556821 0 0 0
6.624 28.921663017944937 -0.03460289774156777 0 0 0
7.998 29.50076645973631 -0.04584270682012637 0 0 0
7.986 28.88380991877592 -0.04474107160702445 0 0 0
7.743 29.528376523155103 -0.04698468397626954 0 0 0
8.317 30.350641438587065 -0.03341417792392498 0 0 0
6.643 30.289971096485953 -0.04616285099965545 0 0 0
8.127 28.950379141676112 -0.046588280025646966 0 0 0
7.767 29.572945102764557 -0.04602253542964263 0 0 0
8.408 29.538463005635585 -0.04876626649074822 0 0 0
8.207 30.241537470666557 -0.03624940230707985 0 0 0
7.798 29.132567871172622 -0.03984482016299751 0 0 0
2.847 30.530091899923256 -0.00616161949658256 0 0 0
2.417 30.457250543960182 -0.005821119217081616 0 0 0
3.099 30.4481568039616 -0.008353657530259184 0 0 0
3.554 21.27957361541122 0.00031415305785742476 0 0 0
2.835 20.828399463128083 -0.010345260918633414 0 0 0
5.654 17.412202129203667 -0.023381518015751723 0 0 0
2.318 21.29794649487463 0.0009446666438552853 0 0 0
5.527 26.14234023745338 -0.03871040733720754 0 0 0
6.181 30.57360764737337 -0.03620991869251711 0 0 0
7.325 30.804829706440366 -0.038558726078008476 0 0 0
3.709 21.271277842015895 -0.0056200174086153964 0 0 0
6.367 26.14234023745338 -0.03871040733720754 0 0 0
6.069 26.030946153981073 -0.03586913624290489 0 0 0
6.157 25.574120078145228 -0.02618143991280597 0 0 0
7.099 18.25545917668001 -0.008394231357300441 0 0 0
5.684 25.995129341875362 -0.0331409689090254 0 0 0
2.299 21.29744877886853 -0.00037906509520091447 0 0 0
6.018 25.987408543311734 -0.03447006499588667 0 0 0
3.753 21.18471703619937 -0.008040860561498775 0 0 0
2.296 21.0752543311129 -0.0021683058373600517 0 0 0
3.169 21.016793687292964 -0.00529099320924864 0 0 0
4.956 21.24599496692378 -0.010388190179444479 0 0 0
2.523 21.297035819443586 0.0005316830416592921 0 0 0
2.931 17.326636994576383 -0.0002542888199137394 0 0 0
2.305 20.55877981310709 -0.021207384053179013 0 0 0
4.527 21.015152145211076 -0.01683702834504075 0 0 0
2.374 21.29744877886853 -0.00037906509520091447 0 0 0
3.623 20.793435226595584 -0.019987733243135963 0 0 0
4.092 17.133388917777477 0.0011649487929918934 0 0 0
3.918 34.65966724539571 0.046853612759136354 0 0 0
5.787 33.661846070424 0.045986725291346175 0 0 0
3.294 21.089965446487636 -0.003471194501246444 0 0 0
2.871 21.281396282792368 0.0011372153456008505 0 0 0
2.174 20.466662324048606 -0.02621789299938726 0 0 0
5.719 25.289693459327925 -0.022077360493266696 0 0 0
3.971 21.058032557081187 -0.012790282845282164 0 0 0
7.632 18.176821060931875 -0.0020591135291372353 0 0 0
6.82 21.112653232211265 -0.030727648940825247 0 0 0
5.679 17.415202982689376 -0.02319670429885079 0 0 0
6.647 17.92175418000749 -0.009944576721274245 0 0 0
3.196 35.40836963108796 0.04572649809465368 0 0 0
7.8 19.708716470893826 -0.028574902589394213 0 0 0
7.248 21.1573310138095 -0.03533653956276872 0 0 0
8.201 19.446932372659123 -0.02057876902274458 0 0 0
6.378 30.524943775489326 -0.04214240282931314 0 0 0
4.255 17.40752804434976 -0.012647149799885682 0 0 0
3.543 21.347182956738855 0.0014299058541809018 0 0 0
7.262 20.314908098381682 -0.03636461716637207 0 0 0
2.281 21.29794649487463 0.0009446666438552853 0 0 0
4.059 20.807200961983806 -0.022049425801649036 0 0 0
7.915 30.96321702154693 -0.02568325359361623 0 0 0
6.211 31.15459012411866 -0.026217400741719743 0 0 0
5.697 25.704516246268327 -0.022848055851762084 0 0 0
6.177 26.44413145969097 -0.042905231950092215 0 0 0
3.417 20.716400171784475 -0.02122522851654196 0 0 0
6.283 31.29446152289958 -0.019773084321553114 0 0 0
7.557 30.813859109600333 -0.03572382943212915 0 0 0
3.034 20.70659787562084 -0.015373358477097199 0 0 0
7.988 30.80422061184478 -0.02497081931809042 0 0 0
2.228 20.556312027648755 -0.023191157242049343 0 0 0
2.989 21.074334966208795 -0.00256218771786898 0 0 0
6.849 30.59691278507192 -0.038591651806347826 0 0 0
3.853 21.272190038022625 -0.005209234076390956 0 0 0
2.245 21.281807883057283 0.0002258628146289965 0 0 0
6.914 31.673227023565655 -0.0009478680722505572 0 0 0
5.654 26.216343284303775 -0.03714654380154414 0 0 0
4.755 21.246908543105885 -0.009979568867528599 0 0 0
4.259 21.14741110540005 -0.01019662803780541 0 0 0
2.404 20.905335726065218 -0.00830094754288524 0 0 0
7.13 30.5168001173095 -0.045009728956632244 0 0 0
7.457 30.8951383682139 -0.03775957905126859 0 0 0
2.912 21.330632725815313 0.0015460553250186138 0 0 0
2.865 21.07341553339892 -0.0029559903756712913 0 0 0
4.622 21.214183638463023 -0.010324308358541145 0 0 0
8.386 20.28985082099622 -0.03758031959222485 0 0 0
7.053 20.421555871233092 -0.03710231851243151 0 0 0
3.766 20.768863119979706 -0.0232522145441596 0 0 0
5.702 26.135648586474737 -0.03578910785620515 0 0 0
3.71 21.03870519227187 -0.013398211116458114 0 0 0
2.267 20.82505595831636 -0.012762941558920105 0 0 0
7.332 20.752378174824234 -0.04155235814988778 0 0 0
3.589 21.297035819443586 0.0005316830416592921 0 0 0
7.023 20.439041577461992 -0.038288578162152476 0 0 0
6.228 25.95117405024044 -0.025955974489676237 0 0 0
8.371 19.755275683738162 -0.030878867462449833 0 0 0
7.067 20.35492395085293 -0.03834671804786893 0 0 0
7.999 18.389525610117758 0.0013191950841893174 0 0 0
7.016 31.498717694780307 -0.009765810699395416 0 0 0
2.496 25.77293162445784 -0.027474847585361672 0 0 0
3.454 26.23936833653407 -0.03905110747745333 0 0 0
6.882 30.400794800754664 -0.04436647770057256 0 0 0
3.603 26.136421504934717 -0.036426786954157464 0 0 0
7.559 30.87884044268529 -0.03264802426803648 0 0 0
2.431 25.445725573316057 -0.025741765699397234 0 0 0
5.78 28.12990803089866 -0.03741469537341402 0 0 0
3.656 34.55030116105391 0.049634203999115556 0 0 0
6.495 30.442052440050617 -0.04305115298839013 0 0 0
8.351 20.311115245133745 -0.0376737918554646 0 0 0
7.537 30.821912333709303 -0.03263182278008614 0 0 0
6.309 30.56548173415972 -0.03911422097917594 0 0 0
7.75 19.76366641163844 -0.02741766482572139 0 0 0
8.12 18.020956018586993 0.011471934792668392 0 0 0
8.382 18.236554723976244 0.01116412384280352 0 0 0
7.703 19.523795286731804 -0.025323568331639734 0 0 0
5.625 27.656465236048216 -0.04660349720678525 0 0 0
8.452 20.287003636979986 -0.03855566481585093 0 0 0
7.035 20.64506767446776 -0.036857383831282675 0 0 0
8.284 21.18686740743435 -0.037695467626212675 0 0 0
5.979 20.27775486204203 -0.03326084720074718 0 0 0
6.253 20.86399937769989 -0.031596769973596395 0 0 0
2.025 31.60165931230111 0.007703068981838257 0 0 0
6.458 19.433842671799546 -0.026001603322509226 0 0 0
5.799 30.641450980759362 -0.03951335749503748 0 0 0
4.122 19.621247972057184 -0.04360790307702267 0 0 0
8.366 18.890103870594793 0.0022770173188320086 0 0 0
7.86 21.155492613768025 -0.03613834543753924 0 0 0
6.182 20.713132263845594 -0.03215107629458558 0 0 0
8.308 20.184809047449505 -0.03395008721759574 0 0 0
8.492 17.570106392980534 0.013573760230677578 0 0 0
2.06 34.63298747571246 0.033938924669621784 0 0 0
6.177 19.951939225554142 -0.03386949490984925 0 0 0
7.477 20.633588486994714 -0.04335486558303003 0 0 0
7.266 30.85034806797978 -0.03886237749234489 0 0 0
5.137 19.430028696316462 -0.03936358661935735 0 0 0
7.393 20.313959972616296 -0.03669203684009936 0 0 0
7.221 31.247645693976025 -0.023102060746268194 0 0 0
7.007 30.914847025015455 -0.03338291486972622 0 0 0
7.804 18.96099900995091 -0.00965508296870432 0 0 0
7.351 30.5692167065717 -0.04432563977745829 0 0 0
7.866 21.304142540559013 -0.036880435637648645 0 0 0
8.252 20.941752464829452 -0.03875861016983784 0 0 0
6.705 30.430607414796928 -0.04279919284722844 0 0 0
7.034 31.61151251991374 -0.005254247619447483 0 0 0
8.153 30.525378649111317 -0.029780681355260796 0 0 0
3.512 31.20748784532911 -0.005168259458956825 0 0 0
2.029 26.249811561999323 -0.023033213355823534 0 0 0
5.565 27.79805005161329 -0.04515541409760537 0 0 0
2.367 25.344368887530415 -0.027507250733881605 0 0 0
5.664 26.408040283581474 -0.040157285549154764 0 0 0
5.653 27.381981631075725 -0.04710276430374627 0 0 0
5.783 28.145603385609206 -0.03804349657427153 0 0 0
4.39 31.49633250310064 -0.006255910026775169 0 0 0
2.745 26.0047953351759 -0.029519284550579172 0 0 0
5.81 26.985768976167833 -0.04891555553417781 0 0 0
5.405 31.059201630670263 -0.03825952769745733 0 0 0
2.496 30.74614941493554 -0.0056211086776851715 0 0 0
8.133 20.0956759261993 -0.03260076388883704 0 0 0
7.645 20.29331959362927 -0.03533316125441566 0 0 0
6.481 25.472827066652528 -0.030577279664859347 0 0 0
7.072 25.33886166177373 -0.03610091423889905 0 0 0
7.864 19.76270339381359 -0.027695840981424524 0 0 0
3.483 33.05154769715041 0.027907102556154584 0 0 0
3.683 20.247968823619715 -0.0391604810495636 0 0 0
2.941 19.80077644199466 -0.036421923721025706 0 0 0
2.579 34.29115280540022 0.041467149047349494 0 0 0
3.288 35.491618266757705 0.04990181270551908 0 0 0
5.799 36.81495803655416 0.02638964159666024 0 0 0
6.72 33.67572331504345 0.05019170805714168 0 0 0
7.903 21.033615968974072 -0.037277548077540246 0 0 0
6.356 21.010735135264625 -0.029548234930327766 0 0 0
4.342 20.560989672255396 -0.02999031836069932 0 0 0
5.827 34.081506419702784 0.04217819944202894 0 0 0
6.045 20.925972108549907 -0.026862812409278902 0 0 0
8.464 20.26383807907662 -0.039060333470862574 0 0 0
6.877 26.133994264309052 -0.040915789259077684 0 0 0
6.403 25.815171050011077 -0.03265914689591831 0 0 0
3.191 31.695789405652437 0.006310452824690671 0 0 0
2.597 30.95749868104866 -0.0026748313697275705 0 0 0
5.016 19.09759549240273 -0.03438634150517217 0 0 0
8.345 19.419956852882063 -0.020255362630052787 0 0 0
7.653 31.482802704768524 -0.0077339414849575405 0 0 0
6.575 20.202896334673152 -0.03741927432453451 0 0 0
3.897 20.70835692875874 -0.025419131431396735 0 0 0
7.82 25.140189577271798 -0.04088429206474764 0 0 0
7.504 20.76896550902033 -0.04256515277474904 0 0 0
6.751 26.259727523260903 -0.04261069911595072 0 0 0
7.437 19.9770147495336 -0.033445246745838375 0 0 0
2.747 31.753295686103876 0.0046904287977032055 0 0 0
4.717 20.723616568874476 -0.025931987349649077 0 0 0
6.156 19.59588551613356 -0.030831856567926863 0 0 0
7.713 21.083951310660616 -0.037617489291362105 0 0 0
6.118 18.829848510405803 -0.01791268921574307 0 0 0
3.216 25.74969840668851 -0.030963522048516268 0 0 0
7.587 19.04532916694966 -0.016188131713521514 0 0 0
4.287 31.348545433886276 -0.010593850590465692 0 0 0
2.699 31.24012847117105 -0.0010199609023686662 0 0 0
4.565 31.483181120357802 -0.005770021227393229 0 0 0
7.715 31.52165546440316 -0.006993585467316876 0 0 0
2.163 26.086846842068418 -0.023927052205042543 0 0 0
2.642 25.915723713091683 -0.027192263130155325 0 0 0
8.458 31.87291641791668 0.005720780589442143 0 0 0
3.363 26.166219511315997 -0.035007125078639234 0 0 0
2.453 25.25855134932872 -0.025313643197813818 0 0 0
2.931 25.832157312305437 -0.031563041260831426 0 0 0
2.383 26.219080390148637 -0.029049959889174914 0 0 0
3.206 20.22444748043718 -0.029146301740111014 0 0 0
5.205 34.46891900273086 0.042974309247739484 0 0 0
7.529 19.548139833425047 -0.027127401831027242 0 0 0
7.198 26.021224473632202 -0.04732446754049491 0 0 0
7.997 19.117023867407617 -0.015696538440231222 0 0 0
4.24 20.561929342944694 -0.029641107586535043 0 0 0
6.007 23.67153636327008 -0.01800893669085113 0 0 0
5.647 20.535040815636112 -0.032128672326813046 0 0 0
6.849 20.585991469078706 -0.03668445437967627 0 0 0
4.274 20.788218041647504 -0.023132713145813 0 0 0
8.486 20.746203515630715 -0.04504269633375557 0 0 0
6.625 20.44376272388496 -0.036595364675468645 0 0 0
8.027 25.508511065374353 -0.036463153636367096 0 0 0
6.734 24.07251267466394 -0.017172532866121415 0 0 0
2.722 19.171886080911808 -0.044263019290216477 0 0 0
6.291 23.22481819220706 -0.009197689462183689 0 0 0
7.963 20.27395856680677 -0.03455684900905176 0 0 0
7.277 18.85441829338777 0.002242038870743812 0 0 0
8.455 20.46964888071491 -0.04322196476520013 0 0 0
8.007 21.15273449383497 -0.037340462094574534 0 0 0
4.04 33.19127321616159 0.02777521941677996 0 0 0
8.007 19.241636436362263 -0.016700766559166524 0 0 0
6.784 20.421555871233092 -0.03710231851243151 0 0 0
7.106 26.021755190814822 -0.04515173291589569 0 0 0
8.216 20.353644792797176 -0.037734015923804876 0 0 0
7.754 18.95532563745452 -0.011863644342509971 0 0 0
6.381 19.99855989768749 -0.03511418764668939 0 0 0
6.829 19.861617145870593 -0.029910330542522345 0 0 0
5.538 33.234432838164125 0.037564129488414366 0 0 0
4.194 30.47805259000183 -0.020254842089421743 0 0 0
2.379 32.61085327609923 0.017057461170693955 0 0 0
6.61 19.57997244577255 -0.02582013982032194 0 0 0
6.444 18.366079314525116 -0.017445201846454594 0 0 0
4.506 31.01267893910357 -0.012901813313654031 0 0 0
3.336 34.530769127509764 0.04472321912590793 0 0 0
4.584 20.267336324242056 -0.039983801723945334 0 0 0
2.697 31.515093888891347 0.001371127658917004 0 0 0
2.023 25.259935410876324 -0.022468833101267904 0 0 0
4.175 19.181216725540274 -0.04006469113776667 0 0 0
8.218 33.79216372484655 0.051623162433875436 0 0 0
6.577 22.978858693692064 -0.010054573534690192 0 0 0
7.525 31.499513107748253 -0.010935659096293904 0 0 0
5.813 27.67903299997525 -0.0462568848686189 0 0 0
8.298 25.095498946624705 -0.03303781039945797 0 0 0
3.304 25.846499096668992 -0.03345114838153229 0 0 0
7.022 33.47663620333698 0.044993233768900964 0 0 0
7.088 32.72797102438179 0.02983305352524468 0 0 0
6.13 22.990802799193442 -0.008161988105941376 0 0 0
8.28 23.660116418009387 -0.017857332569532147 0 0 0
7.226 23.510563961631583 -0.008164120404002162 0 0 0
6.46 23.226462839889628 -0.008057730009316089 0 0 0
6.392 26.9418406817241 -0.045009007843351156 0 0 0
6.745 22.077833653842408 -0.007246835720984279 0 0 0
7.441 22.81118646188397 -0.009067396737611588 0 0 0
6.135 27.918996201388065 -0.04733174624476 0 0 0
3.607 26.01026559990577 -0.035457146054591604 0 0 0
7.497 24.194359852388242 -0.0229340496916155 0 0 0
6.15 19.859983513421632 -0.031442183166740634 0 0 0
2.404 27.876057737353527 -0.015517572936841972 0 0 0
7.853 25.675126149299718 -0.0449093698937677 0 0 0
2.145 30.76631610503958 -0.003707908749152722 0 0 0
3.011 26.884421822208715 -0.028826757831017957 0 0 0
4.919 20.744843108865812 -0.0251640280117833 0 0 0
7.149 24.564946761109525 -0.027861682065571713 0 0 0
3.012 30.912862415925456 -0.004038833045214574 0 0 0
8.279 24.051433321001124 -0.02144666586955779 0 0 0
3.434 30.62810885139035 -0.008857293532855692 0 0 0
2.66 26.753429380672568 -0.0267215885122134 0 0 0
3.142 32.635471824885286 0.024028172667588166 0 0 0
5.524 20.549117599729026 -0.03545999668012634 0 0 0
7.638 25.60812714404302 -0.04100687969120642 0 0 0
6.375 32.91147144037046 0.04091258353297356 0 0 0
8.317 24.01200984969804 -0.02376440383124212 0 0 0
6.245 24.592068519218905 -0.0250239043399052 0 0 0
2.237 19.963734432712442 -0.03127691450356984 0 0 0
7.482 23.916393686033224 -0.018235260556453525 0 0 0
3.636 32.04755932645551 0.019517371768282388 0 0 0
3.698 18.48756040048507 -0.0347553933548479 0 0 0
8.055 23.811404245666054 -0.019226267196334135 0 0 0
3.348 17.942871472362214 -0.01867703880016336 0 0 0
6.407 23.51691800979764 -0.013427936225484771 0 0 0
4.194 20.22733260610715 -0.03767437952815733 0 0 0
6.329 23.80692346172144 -0.015104721424018308 0 0 0
6.116 18.256151459694223 -0.020415963244518665 0 0 0
6.15 25.1550639938913 -0.024602152989908532 0 0 0
4.643 30.906081396213725 -0.02296326518122882 0 0 0
5.687 30.54549124021482 -0.039685925126832444 0 0 0
6.69 20.951565029426924 -0.03362384358221071 0 0 0
7.466 23.277539552144205 -0.00782055865015252 0 0 0
7.347 22.977471979354018 -0.009770679837101781 0 0 0
3.395 30.92718957079674 -0.008618807433629527 0 0 0
3.942 31.471805237501552 -0.006630072881581128 0 0 0
8.331 25.478634586238574 -0.03463666300047841 0 0 0
2.847 32.47275201967718 0.019636190594381375 0 0 0
2.578 19.91617610545205 -0.030172531003213265 0 0 0
7.967 23.575798621016833 -0.012236884170571116 0 0 0
3.371 19.924571203949665 -0.03702567660409528 0 0 0
6.657 23.11153275728446 -0.00679646902051978 0 0 0
6.684 33.20366979671829 0.042414619920382535 0 0 0
4.169 22.068444349748106 0.018380280116950587 0 0 0
6.898 32.502795386176466 0.02979539692441513 0 0 0
7.257 31.493279019416146 -0.016871768148588373 0 0 0
2.565 22.929206932211184 -0.005547730377376325 0 0 0
5.598 24.210168097155243 -0.029283952827833915 0 0 0
6.778 28.695084620090483 -0.039725622460531795 0 0 0
5.946 26.532286209880265 -0.04381924949114513 0 0 0
4.942 21.61243439203912 0.004402036851283597 0 0 0
5.497 23.64691264463848 -0.025298099014616326 0 0 0
7.31 29.133488235663542 -0.04024391518762549 0 0 0
6.086 28.70749794543416 -0.02794066097115433 0 0 0
2.436 26.189801779613195 -0.02843601443018784 0 0 0
3.418 21.732652584335625 0.0161448163945348 0 0 0
2.902 25.597705488858182 -0.030138930804609387 0 0 0
6.113 28.062625480512686 -0.04475482341207737 0 0 0
8.135 33.211494545965444 0.03718819093532133 0 0 0
7.094 32.53962993174066 0.027358509237320305 0 0 0
3.89 20.244166804894167 -0.04044591020168653 0 0 0
7.384 25.72849866712285 -0.045619311314322175 0 0 0
2.867 31.529220523828048 0.0007396824549044112 0 0 0
8.159 22.474695747222675 -0.01634229417340549 0 0 0
3.12 27.358875302593535 -0.023808094290481918 0 0 0
7.108 22.419096428935937 -0.010811743863101242 0 0 0
3.046 31.14380100802055 -0.0012395190958152114 0 0 0
6.762 22.449690202284835 -0.005571638558109271 0 0 0
5.74 20.299337658328454 -0.034323701891183944 0 0 0
3.651 18.857344733979744 -0.03286437846436563 0 0 0
8.429 22.64148999743755 -0.017305841561393365 0 0 0
7.001 22.11768488119517 -0.007111203591922077 0 0 0
3.384 31.845948448578 0.007911513259596603 0 0 0
4.932 19.971862992066935 -0.03713776876184127 0 0 0
3.696 31.482387885573843 -0.004598957602427234 0 0 0
8.041 25.384357645332482 -0.03937790545986708 0 0 0
6.082 20.276181892707505 -0.03485506847851738 0 0 0
5.721 21.305889113235388 -0.014121611949569512 0 0 0
3.459 27.484021195721347 -0.02556613890796733 0 0 0
4.531 30.421254848999048 -0.028547399488708436 0 0 0
5.632 18.726220830503596 -0.025533863895544684 0 0 0
6.389 24.195896136423993 -0.021649648952905665 0 0 0
3.025 19.958944068424746 -0.032756763757159746 0 0 0
8.468 22.959931491683733 -0.017715720058284035 0 0 0
5.468 20.10194259261405 -0.042140343198299846 0 0 0
2.239 28.440045354970714 -0.007551641382613994 0 0 0
2.707 26.483905110369427 -0.029386292152169702 0 0 0
4.724 17.769486611321902 -0.027533883023673766 0 0 0
6.453 26.133994264309052 -0.040915789259077684 0 0 0
7.717 24.061587152649086 -0.019631080915521792 0 0 0
7.308 19.09844433316034 -0.010631710171072228 0 0 0
5.682 19.713664202180606 -0.03860854084857479 0 0 0
2.027 19.895935297508487 -0.03944503226654916 0 0 0
5.165 20.448482365692918 -0.03490006952698366 0 0 0
4.54 20.132752855981693 -0.03949848567864045 0 0 0
2.76 20.238051351821266 -0.022450870691656633 0 0 0
4.358 20.537270282868626 -0.032372568194668716 0 0 0
3.016 26.019045457366936 -0.029766388378243747 0 0 0
3.246 21.988052645478646 0.01815367280236657 0 0 0
3.371 22.265088493736318 0.01801518914046163 0 0 0
2.002 33.53042989304028 0.032948995139655324 0 0 0
6.359 21.63325999321187 -0.024374810109287992 0 0 0
3.034 33.93006007061375 0.03914412825831093 0 0 0
4.119 22.040792905581824 0.017016907064791198 0 0 0
6.44 28.87843851035885 -0.030134561053554165 0 0 0
5.753 29.067113821287602 -0.024304290577989107 0 0 0
3.905 21.988052645478646 0.01815367280236657 0 0 0
5.27 22.40350760897313 0.007871293964404558 0 0 0
3.574 23.098712011136634 0.0014322100089305678 0 0 0
5.364 21.82749190043731 0.001633760084931879 0 0 0
6.71 32.04912747891423 0.01627196876516379 0 0 0
5.379 24.029265659403855 -0.029122720616353348 0 0 0
2.747 22.03254862770394 0.009151472732412458 0 0 0
7.813 29.54590359769277 -0.046290417121584326 0 0 0
3.444 32.40174701060964 0.021804624645110238 0 0 0
4.613 21.505553137277 0.0027045922300423797 0 0 0
5.855 31.214389436203323 -0.0251057409791553 0 0 0
5.991 31.166007721565816 -0.02569574740386038 0 0 0
5.944 32.73161086623783 0.03858899088494283 0 0 0
8.147 31.085619103920383 -0.01769805376964939 0 0 0
8.462 31.48726160476655 -0.00044467172791762266 0 0 0
3.092 25.612613627706015 -0.030189967492843195 0 0 0
2.8 22.302865134600985 0.006196285807357427 0 0 0
6.123 31.88636581420485 0.007692137188602288 0 0 0
5.406 19.929136989152152 -0.04504525798149572 0 0 0
7.795 23.91655504050242 -0.016830251628032755 0 0 0
6.139 21.103028191840547 -0.026161248957464522 0 0 0
3.092 18.221107793384395 -0.030354815783969258 0 0 0
6.45 19.320556207098665 -0.02341641863189814 0 0 0
5.128 19.7660533045387 -0.0392218284740089 0 0 0
5.086 20.743909972983612 -0.025529254583316785 0 0 0
7.664 23.275655064443484 -0.010361179991861036 0 0 0
4.806 20.269861035559458 -0.03806745446796178 0 0 0
6.705 21.78072430035255 -0.023411420746818123 0 0 0
7.84 23.65289040481141 -0.01328163053625886 0 0 0
7.717 24.126634121889285 -0.016746377350280284 0 0 0
8.308 24.27404009044553 -0.022561971070771847 0 0 0
7.463 22.900011922925234 -0.010228769703781282 0 0 0
7.553 24.33426186980529 -0.025119209243253948 0 0 0
2.038 27.67513043568934 -0.012273749637566667 0 0 0
3.84 20.689932622272412 -0.02503361065836529 0 0 0
7.439 22.297415441073287 -0.008442946059599166 0 0 0
8.303 22.12716296925278 -0.02016476421372637 0 0 0
2.154 28.590423196508016 -0.009614112117620977 0 0 0
6.359 21.253367981447322 -0.026814635806841736 0 0 0
2.454 30.74447204063685 -0.0041415851813439986 0 0 0
6.268 24.307951233701107 -0.025242082381915054 0 0 0
7.16 24.387736197130316 -0.022612592367734052 0 0 0
6.651 24.0455949800013 -0.015875944693775068 0 0 0
3.362 20.550675392510357 -0.02528222284481707 0 0 0
